8.297370426911358787e-15 -4.721501408431767050e-15 2.177584149240172073e-14
-5.291910759288231611e-15 1.691820918385197881e-14 -3.883343672398797269e-15
1.184051856263851690e-14 7.185043372445222565e-15 -8.982714101897232989e-15
-2.035175549136916673e-14 1.657632805161530359e-14 2.057688244918925644e-15
-1.223044425067640328e-14 -1.853269972109782698e-16 1.713474299242217364e-14
2.011526431601223970e-16 4.830610263466435239e-15 -1.000573339053666480e-14
-1.983690853723726888e-14 -6.898985946597342017e-15 8.863258527653616707e-16
1.395943500766619327e-14 9.234282040198812935e-15 1.388805469416812613e-14
5.080738669274156502e-15 1.247061197254088760e-14 9.263484348088352194e-15
-1.488820155213285007e-14 -3.585368492983048716e-15 -3.326316002152940321e-14
-1.631628893680823339e-14 -1.052109279960165150e-14 -2.647694550043065698e-14
7.227987942871015592e-15 3.165324007406693924e-15 1.152437706760300537e-14
1.110478510937872119e-15 -2.107464390174208779e-14 5.641733248921889515e-15
3.542891484744140063e-15 3.750553893741266978e-15 1.513254853455908711e-14
-3.901335499231425863e-15 -2.960782491303725478e-15 -5.705046420630306703e-15
-2.443287712178710686e-15 8.224168145543747643e-15 -3.016900965158164638e-15
2.117460395391346228e-14 -1.563985181326273816e-14 -1.587655517037295239e-14
1.461405256249041773e-14 -6.551027776480590828e-15 -1.098952997152053898e-14
-1.309879447611425260e-14 -1.007653094536702099e-14 3.070827105986872856e-15
-2.103252264734102595e-14 2.933972204457232363e-15 -1.473789788498317942e-15
9.362494029292907360e-15 1.436244523715679046e-15 -9.616005061175488672e-15
9.822852624477356950e-16 -8.395937956917447209e-15 2.537396630157041921e-14
2.571748305442824248e-15 -1.122135526588751570e-14 -8.336870961373615829e-15
-1.051518389776160550e-14 1.553375246628966450e-14 2.077816712361003210e-15
-5.369975433289556066e-15 5.623228967156172070e-15 -6.611627901658952491e-15
-5.773065283877195156e-15 4.913400957796965063e-16 3.282205236765367573e-15
1.212349363559133905e-14 -8.922914422854026639e-15 -4.538316134027921278e-15
-5.288401925304230672e-15 1.835535855051356226e-15 7.004580250175615301e-16
1.629287355801433551e-14 5.842505468409576325e-15 1.093554856179202242e-14
-4.249779019226953766e-15 -2.361349810619476491e-14 8.481716983485890204e-15
2.065277575423029449e-14 -2.373721404440483351e-14 -1.135891002838982505e-14
2.020919307008268995e-14 -1.608617888415944663e-14 -1.733361785810801081e-14
1.087786561808400457e-14 -3.523357210914561388e-15 9.642072500127239765e-16
1.789352696503383744e-14 1.462892709631891369e-15 2.027086384490638105e-14
2.756425840141495283e-15 1.056630318316134978e-14 -2.303529139354235089e-14
-2.649859142739774062e-15 3.448799676831343364e-15 4.006883268937159364e-16
1.490583677809468460e-14 -2.696211961987081580e-15 2.155199736598024766e-15
-1.136927008836769240e-14 -9.553841313176495570e-15 -1.346722755014850836e-14
1.395911652327802566e-14 1.592807002015906442e-14 -1.339070744072650213e-14
2.010170543610906649e-15 3.946313795763576465e-16 8.072912625119599977e-15
1.396254954781324734e-14 -2.376639432943774416e-14 -1.093937037445003382e-14
-1.858938655405987378e-14 -8.612800414271176708e-15 -2.160640017460002324e-15
1.023453562431489092e-14 2.620542739512239649e-14 2.797986570489711597e-15
2.638635956188654583e-15 1.623900565070075103e-14 -4.616147026935803546e-15
2.116512565523368666e-14 -1.475082297248356961e-14 -5.323293753500477066e-15
2.678023411752453176e-14 1.734657830923394886e-16 1.186675625521266611e-14
-4.423710035165572679e-16 3.874385875465109416e-15 3.365375825372740951e-15
-6.334788311859566867e-15 2.365189241562790784e-14 8.459644151913390392e-15
-6.301041672208008287e-15 -6.944044711259481778e-15 2.057141146338294091e-14
1.997832661701200510e-15 -5.477579110776953364e-15 6.878806657178429193e-15
-1.659479421689839460e-15 -1.241934022121063755e-14 -1.704343114664226555e-14
7.129966749115906194e-15 -1.906185814390653349e-15 1.858737569784309207e-15
-8.949507869266022653e-15 1.062902766697142523e-14 -3.324943131152030551e-17
2.694603742881777203e-14 1.776666006425998284e-14 -5.033736387514541749e-15
-1.141552232245251347e-14 4.572186440489778986e-15 -6.925224909720912106e-17
2.147092996018090671e-14 1.253924620522395630e-14 1.198700698163551737e-14
2.018111392788120989e-14 1.399112251022297665e-14 -7.058143437386425051e-15
-4.828058576712831659e-15 -1.221344853458974575e-14 -1.448477670001457190e-14
7.700253703711492509e-15 -6.010565275474302055e-15 2.805509705368987479e-15
2.247765233491516579e-14 -1.750447372093162299e-15 -6.614195470280317089e-16
-1.613994514751936060e-14 6.700855199355667743e-15 -2.207597914693180952e-14
-8.303115004359637452e-15 -8.334857564057992357e-15 2.107351268924102967e-15
9.657409090428462940e-16 -4.927863198338384987e-15 -2.157458138193641545e-14
-1.798083234497323268e-14 6.311443660316764723e-15 1.311619930911443396e-14
-6.310395457044537526e-20 -8.512076338381378837e-15 -7.077644676931060808e-15
2.233721766039219181e-14 1.475388923175263017e-14 -7.372369367411720983e-16
6.575365150637575012e-15 -1.559692757162767923e-14 -4.829142355368843537e-15
8.705785997154859290e-15 -1.000227156688123648e-14 -7.930212137462720745e-15
1.722612429490375657e-14 2.581677437408775970e-15 1.579720173574238051e-14
-1.461978528147743484e-14 3.739445480154500456e-15 2.017587079393770577e-14
-1.237895453731849976e-14 -1.853423623886414628e-14 -1.153719521719380470e-14
5.377371301468506989e-15 -8.856499416492764204e-15 -8.068773175106368212e-15
-6.310304824519181316e-15 3.478355197459887665e-15 2.419945855844634480e-14
1.016578873624983739e-14 1.782537469409775643e-14 2.864470610036175258e-15
-7.759499423207194546e-16 9.546855832460489355e-15 3.745474660673056566e-15
-1.074721671520065952e-14 -1.955181588191631098e-14 -9.514835445955435039e-15
-4.312440822598932397e-15 4.656494170828841261e-15 2.512728743744039109e-15
2.129965142791661464e-14 -1.776361752191344540e-14 -1.796107318389615799e-15
1.869595685135162083e-14 -1.368838446454481717e-14 -3.588724861036543881e-15
1.010334970254298664e-14 -2.489704440061888541e-14 -2.934396991480280395e-15
-4.007098997640913193e-15 -8.408350377726511726e-15 -1.586060723404204842e-14
-3.145908318189730851e-15 7.930551797674569720e-15 -9.002335620120378856e-15
1.664623029262041198e-14 -2.624507531331747578e-14 2.043859330912167760e-14
4.521172610691967866e-15 -9.143930729781091227e-15 -5.740343554091814279e-15
-7.343058215788459547e-15 9.208886298374234503e-15 -7.894316575223978005e-15
8.393722965760377214e-15 -7.349441456078967955e-15 7.771722108636074100e-15
-1.310788483370418575e-14 -8.161530059094292133e-15 5.563129438449637698e-15
7.943805322200257757e-15 -7.399673050949989728e-15 -1.246072709804642992e-15
2.924234713695596927e-15 2.649587668680179059e-15 1.935803337830936666e-14
-6.412575582570665539e-15 1.107220631640318947e-14 -4.254751526143810136e-15
-2.676165360279356142e-14 -3.193369268290283808e-16 -4.135395266513259421e-15
-4.738336188258446269e-15 -3.203744151344728106e-15 -1.573668419627637614e-15
4.574778784824850772e-15 -6.482235572152859199e-15 -1.239560889912741382e-14
-1.826343302936336843e-14 1.100731766341287929e-14 -6.366718912872212227e-15
-2.416712053458607012e-17 -7.089013553149108027e-15 -9.819424258623345170e-15
-4.146137761866812085e-15 -2.111383950434333329e-14 -1.952429069926233524e-14
1.492859824745330216e-14 -3.093749723363705545e-15 2.721239667996078020e-15
1.132518117643015881e-14 -8.135199828170655394e-16 -1.210865023022365469e-14
6.888403116954346789e-15 1.974468528400611517e-15 9.438965857836920104e-15
-2.140450563645722448e-15 8.279611534139225126e-16 -5.336708214286143420e-15
-1.018688070366941673e-14 1.835308130243486907e-14 -1.715126013489363249e-14
-1.724469633930525436e-14 -1.173748123976976754e-14 -1.460913638326455377e-14
1.416650152898492679e-14 -5.802241757261843158e-15 4.331114087437627075e-15
1.838152975100135200e-15 -2.371981429360233568e-14 -1.026649248334890116e-15
-2.334681147681764296e-15 3.628893280977710939e-15 -3.912693364021158776e-15
5.834003798717984912e-15 2.542114434266658923e-14 9.553878370867937946e-16
1.186665291719310109e-14 -1.968274515270519720e-14 1.111401078048197821e-14
1.994395825517716186e-15 1.718978488740065258e-14 4.451075975625464615e-15
-2.386053272416263984e-15 1.350126133396918615e-14 6.734337988244156609e-15
1.390261010833374403e-14 -2.319144699956636468e-14 8.704976233657284179e-15
-6.910091819085266776e-15 -7.256033203754605476e-15 -3.288774294908679893e-16
-9.793043417481109986e-16 7.528506762227368809e-15 6.269902623484572071e-15
-6.588343389455405402e-15 1.187187487531292385e-14 2.056949632188919894e-15
-8.816765100937064975e-15 8.365251647304318416e-15 -1.249216980808145680e-14
1.123547784621708664e-14 3.177427261190010621e-15 -5.000419193567241100e-15
6.258081431672691056e-15 9.816929746593681255e-15 9.594041496853184664e-15
1.220325703416838201e-14 -1.365341894448215965e-14 6.603801740742796383e-15
1.049559456679045530e-14 -9.902215799986822248e-15 -1.217194561424017954e-14
3.923120339601859213e-15 1.063402092619548933e-14 -8.986837458284466923e-15
-6.448510531841455604e-15 1.161002014538341405e-15 -1.650304953728243956e-14
6.259924998882390040e-15 -1.471977455628548960e-15 -2.471554387474712844e-14
-2.364094366775169875e-16 1.314728118311393051e-14 1.489002944923302485e-14
-6.380887656497408536e-15 9.294447637475233143e-15 -2.480716827568457336e-15
-1.635204897377541544e-14 1.313434953110819911e-14 2.038244518911408454e-14
4.908833332628896248e-15 7.402144693090077776e-15 -1.518196274263600848e-14
5.444279281005071428e-15 -9.596115880541010446e-15 1.156949512457145293e-14
-1.377275064015723999e-14 -7.873916633722305436e-15 -5.987881733146831892e-15
-1.286705642614084308e-14 -1.041457332428673971e-14 -7.591387100099739049e-15
-7.658384018095765189e-15 6.639801488034051402e-15 -1.599315772589197937e-14
1.105291175289768377e-14 4.655497424808159763e-16 2.547585589479563900e-14
-1.091315766934782862e-15 -1.434666120170118020e-14 -1.318623834594052392e-15
-4.050926599914218829e-15 -4.531256961445503939e-15 2.928300048325943941e-15
-4.396857396671716850e-15 1.324318225340206240e-14 -1.513694632962123143e-14
8.981801000380092853e-15 1.907555127853184651e-14 -2.407232738339294686e-14
-1.514358876199359966e-14 2.782671579528643406e-15 -3.332597979654604477e-15
4.485416385373048459e-15 -4.079281451340030160e-15 -1.976792363291403690e-15
2.004097317379093315e-15 -3.721753502985199885e-15 -1.551581569659860743e-14
1.525584265036142306e-14 3.874325312609380734e-15 2.094819204711238780e-15
-5.920069969455547115e-16 1.737841065442471272e-14 -1.587617739367847697e-14
9.430714062864768710e-15 5.792308178372918351e-15 1.611347303857705877e-15
-2.942639045573538364e-16 4.150663035387518185e-15 -6.154612545517315625e-15
1.030618952945492120e-14 5.087737279000845159e-15 2.963208817181135421e-15
7.859499285927089990e-15 -6.046558670018452666e-15 -5.135910160293565355e-15
9.131001618874201586e-15 4.946117605384662413e-15 -1.070141764374261950e-14
-3.901557421863606490e-15 1.134840597281092447e-14 -1.416836076630414998e-14
6.185092179091314368e-15 -1.029528906245670561e-14 -1.609777307114146350e-14
1.169076059646511484e-14 7.093739573478313395e-15 1.879328093699113994e-14
-2.207744281986466495e-14 2.566110538849194350e-14 -7.892016033739235326e-15
-5.646267416288541785e-15 6.631575104050317637e-15 1.473245358071470241e-15
2.961449445046393514e-14 3.601263913271222916e-15 -1.961883482276896573e-14
1.115261938925077648e-14 2.497779247499711149e-15 -3.104187710372720288e-15
1.064561511317750619e-14 -1.015150860779207714e-14 -6.783132168203687834e-15
-9.231534265317919985e-15 -3.234565139196470332e-15 -2.911874385412788549e-15
5.044702076049695921e-15 -3.435929222956051084e-15 1.058667940774049923e-14
-8.249211521662268287e-15 1.029372205150428515e-14 -1.759611845065980201e-14
-5.397954625603260115e-15 -1.043784407220489392e-15 5.870792133683133684e-15
1.772796421109761739e-14 -9.164344223809919865e-15 1.438511988563831445e-14
-2.423428812972096801e-15 -1.610788495046578533e-14 8.689980997633804487e-16
2.355576179941107004e-15 1.982959017257299172e-14 -7.589347444762750694e-15
-1.781761333120206528e-16 -3.601685735678955558e-15 8.793113399950883147e-15
-9.784403681419116122e-16 -2.166209343791494074e-14 7.602042774576198148e-15
-1.411788183781252995e-14 2.167280332250002411e-14 -9.099602107519484673e-15
-8.489582531434093637e-15 -6.721893380183096428e-15 -2.903375849743101977e-14
2.915537548799779222e-14 1.295718581392638416e-14 1.138593122644018449e-14
-1.479217003877084102e-14 1.500398756789072391e-14 -1.225536734811641382e-14
7.107244243272862333e-15 -2.594951163670256022e-14 3.317265201001643946e-15
1.266318406606620553e-14 -3.446255401616028259e-15 -1.618290327047230970e-15
-4.403806878487464757e-15 -6.715218337042258914e-15 1.359824575939685629e-16
1.045364526007768607e-14 1.948647067816743073e-14 1.582569423002212067e-14
1.438076274815763833e-14 1.487833171247320615e-15 1.828951995007290637e-14
-8.646015964264806841e-15 -6.803046336310110062e-15 -4.028844874495772846e-15
9.150330910730544720e-15 5.770522914486011373e-15 -5.676364190970381585e-15
-4.928658985792330402e-15 -3.067127901347976512e-15 1.455204297448782491e-15
1.285215542253274543e-14 1.088437760738249563e-14 -1.517491542851485270e-14
2.066931322549248745e-14 3.152221254745617152e-15 -3.226820716959724264e-16
6.301063271548163272e-16 7.929993602962329136e-15 -1.159340093544181105e-14
-3.015165225242651126e-14 -8.514976579192777562e-16 6.166248237113747949e-15
-5.710235344465186547e-15 -1.967506764607128422e-14 2.446273503317782094e-14
7.377612924871698730e-15 1.821995652224669970e-14 -2.666798192322260286e-14
8.825437024251054502e-15 -7.413562697219065745e-15 1.272794566411442757e-14
-9.698232478596094386e-15 -4.029780252979425770e-14 1.784240852666704041e-14
1.092777110527033343e-14 -1.027462230557664793e-14 -2.175571598957495856e-14
6.405809483387998188e-15 -4.816874671314641098e-16 6.585786196987644669e-15
4.796095364931717009e-15 -2.935844570787137994e-15 -1.068320982350844106e-14
3.791399516523763849e-15 8.681221194651537326e-15 3.088942387871563763e-15
-1.909032692126375053e-14 -2.247809279204773802e-14 -3.043252371905482735e-15
2.580186362960076862e-14 1.322936460493350300e-14 -9.301836305874132405e-15
9.081855073208612572e-15 -5.820717239907353957e-15 -1.993279097280056117e-14
1.385574165777979545e-15 6.545723232648410772e-15 -5.531094652384480059e-15
6.185585152266616371e-16 -3.342560145905499117e-15 1.105712235367848489e-14
-4.900938562044012542e-15 7.090827050689179484e-15 -1.997585328080602254e-16
-2.932798852067048344e-15 -1.937252780610278224e-14 9.325668424878079399e-15
-1.888423533486730671e-15 6.224943385193734691e-15 5.924647759018982981e-15
2.315842287901881402e-14 -6.540768936939920369e-15 -4.088792360788275071e-15
2.008574479428395371e-14 7.136056916006664613e-15 -2.965565686356870512e-14
6.636930469859332951e-15 5.461145824567272683e-15 1.304497400264571436e-14
-1.519501382628730274e-14 5.014634947521010022e-15 1.249566212492298628e-14
-7.065983574346210855e-15 4.697108977133211336e-15 1.826622993215520213e-14
-9.738995092149760335e-15 2.182891149467899167e-14 1.395749869034876994e-14
1.944923510980613168e-14 -2.494691770055321861e-14 9.321020755096495053e-15
-7.340755450842230325e-16 5.682379818961781626e-16 -3.493872417537112821e-15
1.096720048896502112e-15 -8.027185551462076574e-15 7.737311395153868149e-16
2.502262169373054533e-15 -2.350924020884902210e-14 -2.055897193751956425e-14
-1.566101408441693960e-14 -1.262729189195925181e-16 -1.264282562917894842e-14
1.723585839753360299e-14 4.754927022596316250e-15 -8.932604479770615835e-15
6.915727552799823263e-16 1.147862204185822257e-14 4.392775544898898377e-15
9.116288656580394389e-15 -1.347197093465313245e-14 -6.418244774086638571e-15
1.182202359823521925e-14 1.009796087893255478e-14 -2.397719033682323836e-14
-1.495480544684135021e-14 -1.588858473228985796e-14 -6.891473187871670000e-15
-8.834809443812423335e-15 -1.676267699407714418e-14 -3.130283779038088576e-14
1.226763916145623412e-14 -1.783103795638309869e-14 1.217635950292832170e-14
-9.518597966307138641e-15 -3.916258525696152126e-15 -8.188940892300388547e-15
-1.264453324760061309e-14 5.731181622217838140e-15 1.465661935622173534e-14
-5.210862835246677510e-15 1.778807644529836057e-14 1.406817286226996408e-14
1.803185760971583174e-15 1.077504428861680505e-14 5.333585627326090442e-15
5.199592214850511790e-16 1.592102821175206580e-15 3.022416631952447828e-15
5.210592631736503388e-15 4.999869892700946686e-15 -1.693121283365822682e-14
3.436790020188698266e-15 -1.111537619759295215e-14 1.433543970921595523e-15
2.568722957865116063e-14 -1.723845852398387768e-16 5.031706049539973191e-15
6.457728367889950527e-16 -1.067350790813059030e-14 1.111453509387632863e-14
-2.593963015033989156e-15 1.030496471981319148e-14 -1.741871163502212508e-15
-4.854023524677964982e-15 -5.077131579468274064e-15 -3.388982633612718301e-15
-4.587883655068295680e-15 6.856739331320086533e-15 -5.402321927479303287e-15
9.170688500584854574e-15 2.035953125382496121e-14 1.277902852709743992e-14
7.020455553431292212e-15 -3.647639814166343114e-15 -8.312668688971718706e-15
6.227370134587618261e-15 -9.305250695684514489e-15 -2.426778531816956019e-14
1.583229727536244157e-15 9.224095621975132719e-15 1.030258455723140690e-15
-2.175303428326395144e-14 -2.666854435309957971e-14 -2.438886698391366792e-14
-1.327829854532933118e-14 2.842407773452453046e-14 5.376805059943267490e-15
-9.957012055410597445e-15 1.110129003968011313e-14 -7.318237609335066784e-16
-1.455116206022268044e-14 1.767500093497170049e-14 -2.741903926128941293e-14
4.390813816593057417e-15 2.465931443957659897e-15 2.756926902481443564e-14
-1.611131882203395427e-14 -2.281755352763763407e-15 -2.137266058577225181e-14
-9.258935781161596601e-15 2.089837295728667887e-14 1.569194264545298312e-14
7.495420808274668584e-15 4.599050513928422748e-15 1.032347450729306608e-15
-2.055415740224737081e-14 -1.215761889897032030e-14 -1.849733609554995994e-15
-1.900145283630604032e-14 2.077470106478986750e-14 1.101033564180394636e-15
3.869816132714672466e-15 1.749797782525912976e-14 5.847168384784211248e-15
1.198272777118598864e-14 -6.271932114426193375e-15 -1.473226448060922789e-14
9.439631625733461984e-15 -4.168244368878083663e-16 1.746459223340133832e-15
8.523802662503167371e-16 -2.808429893806294042e-14 -2.396048176490570003e-14
8.900878860731206016e-15 -6.336949092908012587e-15 1.553405570408478154e-14
-1.127744239952290645e-14 2.091003490690447608e-14 1.125170445638763728e-14
-4.394484857386457555e-15 -4.610889916948669731e-15 -9.222971609254126263e-15
7.863530315723073205e-15 2.036318874209120527e-15 -2.075940364976245484e-14
-1.509846286997038999e-15 3.440624114824444857e-15 -1.811239689047255963e-14
6.601076412235005672e-15 1.349847713667156127e-14 -2.135903013158503561e-14
5.007780333395354597e-15 -7.731598157924637893e-15 -3.065296192599539088e-15
2.981780861582633210e-15 -1.363516877260061849e-14 -2.707467124031959910e-15
-1.094111356825548317e-14 3.340467974525780995e-15 -1.408687280864649727e-14
-8.522719307363629121e-15 -6.592360866724232549e-15 -1.393379277925396384e-14
-1.512840315531522456e-14 6.686570835733171222e-15 -2.220619182784731860e-14
5.639510634468294231e-15 -8.799233212994795467e-15 1.161350610947783912e-14
-1.552844156971038003e-14 1.449615065843030265e-14 -9.393964691415193635e-15
-2.325069187202911947e-14 6.352965215391170525e-15 1.135359404961285706e-14
-1.779069208303948185e-14 1.931254770904181073e-14 -5.963506666023694891e-15
-1.348030150368937849e-14 -1.078938879157855663e-14 -6.221766164608583810e-15
-8.376113997819907564e-15 -1.621499946642614327e-15 8.158404507518923765e-15
2.162045033361260395e-15 1.147201094970490276e-14 -1.253730904087358572e-14
6.327890499053601472e-15 6.237908071484409012e-15 2.200905168563745823e-14
1.412734234880041323e-14 1.332167849069001292e-14 -1.384884892717151358e-14
-1.196897873238615684e-14 3.075446527219666271e-14 -3.846880598085394148e-15
-2.029443846589436273e-14 -5.351532137896040930e-15 7.642981570982892991e-15
-8.386530809005240950e-15 2.269953219193195613e-15 1.574914278038106602e-14
-1.943169136340260061e-14 1.276798491153113835e-14 -1.635580471786354101e-14
-1.963956637766948836e-15 -1.388981059346778429e-14 8.948383009512068942e-15
-6.654641928786420371e-15 -2.398663136605333479e-14 1.116116341058973060e-14
-2.877387184855445534e-14 -3.318946815511827908e-14 9.828063994685339033e-15
-7.972408777796088225e-15 1.653778297031754940e-14 1.728282637445885395e-14
2.565363116976537156e-14 -5.709427275033505944e-15 2.657765771785919329e-15
-1.630949403850535939e-14 7.314807125898686868e-15 5.595743595050717278e-15
2.230738558350636898e-16 -2.061814565921474968e-14 -1.767312390996058497e-14
-5.369054920234127455e-16 -1.036370645470527721e-14 -7.404912796761704830e-15
-5.163544186681263276e-15 2.036160309641394522e-14 2.642750079916763445e-14
-1.450170380643250184e-14 1.689128200645876460e-14 1.494793770370501235e-14
7.939038644289584182e-17 -1.531899234471102017e-14 4.559436477051233630e-16
-2.104642923426904705e-14 -1.394720533421549887e-15 7.643078132738879982e-15
-4.827461842001491005e-15 5.540685606446240502e-15 -3.512895930499497152e-15
2.279699392042540407e-14 6.482547492035685595e-16 6.396206247348502558e-15
-9.529608547588497292e-15 -2.971708369290358698e-15 5.002657901646834215e-15
-6.210045346200952429e-16 -1.991286367568345650e-14 -2.700198056685212955e-14
-7.439167444423379176e-16 8.526491145077752520e-15 -1.722759643816608455e-14
-1.690146143666062997e-15 2.207833220445928196e-14 9.756465146686880280e-15
-6.828222696601349631e-15 1.194723031443245542e-14 3.902297728659506748e-15
7.191138198017190883e-16 -2.249287521104322007e-15 -6.372493136473644793e-15
-3.558140830651796045e-16 5.116419932177243904e-15 -9.557088837496268557e-15
-2.717511717176534234e-16 2.562981302680505426e-15 -5.012120953733559259e-15
3.816738507140876244e-15 1.576176187722926059e-14 9.619134000882646057e-15
-4.855316520471948671e-15 1.929100935525902838e-14 -1.895864717928359700e-14
1.615533743023686575e-14 -1.016702625138577593e-14 5.758380908945357791e-16
-2.969220633524272818e-15 -2.155548078897583097e-14 -8.890126624498759927e-15
1.187465399041286521e-14 -1.273402757243395026e-15 3.844214985400384865e-15
8.201423616844075171e-15 3.105694073766117336e-14 1.525927991006138101e-14
5.592828107646267977e-15 -1.185606924051715860e-14 -7.122473048631547399e-15
-2.323281778277615922e-14 -2.574193266045073786e-15 -1.374956057212731175e-14
1.461876545380894066e-14 -4.204824439617326284e-15 -1.202336502386346095e-14
-3.761888465124950398e-15 -9.490899988931923020e-15 1.105889434660414089e-14
-1.487737816513283462e-14 3.578424516881457962e-15 1.325155517408567116e-14
9.374082287044293443e-15 4.414409613404720462e-16 7.190017149911499816e-15
1.747909068460125337e-14 -1.661690770605236261e-14 4.213933855448572657e-15
-2.728777287138751950e-14 1.206558368705345705e-14 9.681402780967098692e-15
-1.757852896447711921e-14 -1.270097952320563967e-14 1.833938477967776703e-14
-7.407804567243631011e-15 -1.591756681161311110e-14 -8.707892568094680735e-15
1.911680517119491995e-14 8.143990547855497336e-15 2.605121827081117308e-14
3.518495453555558518e-15 -1.138733984223146839e-14 3.731186061885823774e-15
1.045294137569851775e-14 1.182085384573506107e-14 4.543494893467434070e-15
-6.394092053112155824e-15 -1.464037495835929237e-14 2.365098270224255672e-14
1.382060461354531894e-15 -1.245330031316490421e-14 -4.297247169107558384e-15
-6.300772315730781420e-15 8.179626706254143446e-16 3.989755574529407767e-15
-4.580295933926791657e-15 -2.760052835221638197e-15 5.865034003707698951e-15
3.563939829966935799e-15 1.879034003859827301e-14 -3.109987133204333669e-15
-9.628554701322008386e-15 -5.382353125747783157e-15 -2.956055623941572855e-15
-6.948089717099094689e-15 -7.799003345801240605e-15 8.088063503447137648e-15
1.269255323944635389e-14 1.752385637586364314e-14 -7.167974811525101159e-15
-1.159592848175641788e-14 -9.567008440341563669e-15 4.701214545828552929e-15
1.158958081684969416e-14 -6.454546912140063375e-15 -9.346702794057245439e-15
1.254321031941710643e-14 1.086841018929380481e-14 1.199465463035803963e-15
6.773434487990573349e-15 -1.122095970150114794e-14 -1.022820574710005953e-14
-1.075461215986313682e-15 6.240365949339104178e-16 -5.023690153243632120e-15
1.662270649360926555e-14 -1.296151626986922177e-15 -5.733438117989323596e-15
1.015842039664167223e-14 -8.076016577354813361e-16 4.926297034418911786e-15
-2.124636119707305759e-14 -1.694444857049202252e-14 2.260627767608752031e-14
-7.045299453290734468e-15 -9.389944673047524726e-15 1.500922731370243901e-14
-1.666634563105180711e-14 9.291981077532828620e-15 -3.185384627509696420e-14
1.498197995785516268e-14 5.670876264505120973e-15 -2.690701292687187191e-14
-4.873255831261847498e-15 8.220683451998743452e-15 -1.949910502160867587e-15
4.561118260968007043e-15 -4.790544334511885952e-15 -5.484551885998750764e-15
3.785717195997108375e-15 1.177727992982945809e-14 -4.878449837294410868e-15
-1.032260926313744581e-14 1.419787986451596234e-14 3.002219851303174203e-14
1.620957464391545311e-14 -1.264668555831958627e-14 2.423583692946502249e-14
-3.473724044820774778e-15 2.856736860414564594e-14 -3.871319616196048849e-15
1.148805290669295195e-14 9.997469737103251847e-15 -7.066909804874033432e-15
-1.542058420585528007e-15 -2.511725856734490017e-15 2.358988282762531502e-14
-1.735084650825516328e-14 -1.510138280429781238e-14 3.702417434865278717e-15
-5.542039165095952874e-15 -5.623018055952305749e-15 -1.841562621526012661e-14
-2.025735705752946397e-14 -1.315788942374534337e-14 1.928485311979838412e-14
-1.183894562245546567e-15 1.213827774865271561e-14 -9.365969405475491755e-15
-8.071339684936548742e-15 -1.496986399857763717e-14 -7.504800851132562706e-15
-2.064705828183632796e-14 1.662128009012608931e-14 -1.093058071355637595e-14
9.351555445812065326e-15 -1.046364956621770662e-14 -1.945736323796798395e-15
-4.192345526721902305e-15 -5.587797578972524687e-15 1.687029168299285578e-15
2.489099319724370069e-14 -7.697808319592769344e-15 -7.598429332023211302e-15
-1.255887619377657471e-14 1.616192734656650420e-14 -6.929840815766974416e-15
-1.027107069642881065e-15 2.046868500160583387e-14 -1.633051400812442211e-14
-1.972597602026716218e-14 5.958742952728336706e-15 1.784236786908557221e-14
-8.998658650096347938e-15 -2.757122736498848758e-15 1.212634813662358604e-14
1.664286418368802339e-14 -1.241314756333326136e-14 -3.443342667068657534e-15
6.564586232867290413e-15 -1.926836138831534290e-14 -9.298442244854484423e-15
-2.438321896822137624e-14 -8.981225865008907183e-16 6.850328985975265988e-15
-3.674366244751058053e-15 -1.259325895517152127e-14 1.806694171439110486e-15
4.526580492543712947e-15 5.519696553529752567e-15 6.076314937455496237e-15
1.510388324555810707e-14 2.215815997754031624e-14 -2.454587766969793493e-15
-1.129317434245226057e-14 2.197618299563572873e-15 -8.086105163273085705e-15
-1.022221129493234085e-14 1.495466992156978953e-14 1.126571438133522340e-14
-8.480859786143268852e-15 -3.183880593456904322e-15 2.052634264020455250e-16
1.803556761402480557e-14 -2.767064870420540834e-14 2.933897453799637171e-15
9.267511142719599138e-15 -1.010610510072040488e-14 -3.576775343733153839e-15
-5.604207148259682247e-16 2.013582307619152245e-14 2.661168726651513480e-15
2.647139108187903690e-15 -1.169214634236682288e-14 4.612019858900306968e-15
1.411372375307445859e-14 -1.254290369349020037e-14 8.558718207621936885e-15
-1.564049619357736187e-15 1.680507861638374720e-15 1.202676670817963422e-14
-7.408365303054713358e-15 -1.235292775594821688e-14 8.577161503015452021e-15
-1.679051219078981499e-14 -1.655156250230348236e-14 4.242998944000656719e-15
9.866869115097900295e-15 1.705958237088051055e-14 6.025297296009422474e-15
-5.335060735203733806e-15 2.460653581663318351e-15 6.111986882996163842e-15
1.128318528290529060e-14 -5.053113960248878378e-15 1.634442398318423223e-15
2.215400782203287566e-14 -3.156917840679905433e-15 -1.977968468538666286e-15
2.323018351031019835e-15 6.638489433998754491e-15 -1.142757390722604766e-14
-1.173779972415793516e-14 1.375197376899403925e-15 1.147316609088672081e-15
1.836953999963296738e-15 -1.146135527522844366e-14 1.312198030897944456e-14
2.784666215064485195e-14 1.810013693559400089e-14 -1.177505477427702105e-14
1.449364005277464090e-14 2.713622088943183283e-15 1.311020655101260979e-14
3.135911635346235599e-15 -1.925636020200217034e-15 -4.850568900802588318e-15
2.812315403341938969e-14 7.794949446115681524e-15 -1.953968637011162940e-14
2.753557574823855408e-15 6.240607565487308467e-15 -1.126263626360490128e-14
7.547310046623467022e-15 -6.645306778674730727e-15 2.349957725698674504e-14
1.024191074018663411e-14 1.810730622245956128e-14 -5.555174952041972564e-15
-5.260002075253096456e-16 -3.738424805453059024e-15 -2.594567161283618285e-15
-1.161960982889575361e-14 -3.177613608438406567e-15 1.260357073427139513e-15
-3.572215341861610313e-15 -2.263777036106643520e-14 6.073784003009100388e-15
-9.423864954453270437e-15 -1.240408769892942936e-14 6.902319021244787689e-15
-2.366548009465128770e-15 2.344347487675830372e-14 -7.025395026063205664e-16
4.456501645169102035e-15 -8.618919380282141773e-15 1.134584200407958571e-14
1.077676630659857304e-14 -6.497110741256065594e-15 3.124763199452711311e-15
-2.430172254023425099e-15 7.677521880506028851e-15 7.670001074967357918e-15
-1.132412958502614260e-15 -7.413218801842480499e-15 5.140670485457134523e-15
2.744341856357728621e-15 9.859698981199392642e-15 -1.174622600791722093e-14
1.666409951143392552e-15 -7.378631905507245653e-15 -1.240293658115411077e-14
1.185087438745164798e-14 -1.761526478339953822e-14 -2.377789873092735207e-14
-1.055403221685447673e-14 -1.937896525650191493e-14 -2.992283646612112907e-15
6.002220518636189502e-16 -2.187846122802747373e-14 -1.721315452641539873e-14
2.319399318060581111e-14 7.192138120411424584e-15 -1.318384759544689866e-15
-7.292996027506888634e-16 -5.999608904301567680e-15 9.687851242794545681e-15
-5.650231106965218283e-15 -1.144300176532733748e-14 -3.340200312114448636e-16
-6.891149621285818858e-15 -1.052804524603271480e-14 -1.555069990149832854e-14
7.978892815007319894e-15 1.069060526817091836e-14 1.095506250683086699e-15
4.516740087278986113e-15 -6.077986133460428972e-15 -1.173992323575670169e-15
1.080942874407764612e-14 1.548008276468573752e-14 8.241222306903765726e-15
-2.623568341199832010e-14 -1.083490495403221371e-14 -8.769903003130220809e-15
3.800462345542911236e-14 -3.691757101707609720e-15 -4.713914110806736654e-15
-2.008459282947568786e-14 5.861910993231172345e-15 2.901665859629184996e-14
-3.213844595724262010e-15 -1.588265973682381413e-15 -1.324827715657979701e-14
1.709614200694990066e-14 -9.710033341617241298e-15 2.595133614567094599e-15
8.387349360469643824e-17 -4.687427390546094683e-15 9.769801680441399239e-15
-8.586472089171671290e-15 -2.510846043612176975e-14 5.288007207950810168e-15
5.315967342023200995e-15 1.779570058885659653e-15 -8.403137736969108762e-15
-8.504410690208727419e-15 1.070061804464041144e-14 1.207235910359854419e-14
-4.673763478557461937e-15 2.082205401818964553e-15 -3.107449422494359785e-15
-1.638809700194466396e-16 -6.966498284141772399e-15 -1.054127759473472148e-14
-1.613312949690927887e-16 7.152739229902838058e-15 -1.674052200030876070e-14
1.010720539651888822e-14 -3.928092423002241956e-15 7.575946536504240408e-15
-6.353145739288054098e-16 1.275793063044722980e-14 -1.338524831338144816e-14
4.333488320788780879e-16 4.135889510237982306e-15 2.472624020680505574e-14
5.695653672278203766e-15 7.779008286048355592e-15 7.208053445973859261e-16
-6.848731058320270751e-15 1.695002035321906131e-14 1.669974244609614966e-14
1.778540702096508865e-15 -1.240760119159464020e-14 2.291246145179511029e-14
3.672783987205587020e-15 2.586569264437406368e-15 5.145347377875399142e-15
-1.035751633792674278e-14 -8.098553159465934903e-15 -4.593033191871128199e-15
1.505263097598564387e-14 1.796401874097023482e-14 8.995755868186107451e-15
9.577107614171676692e-15 1.049933421725258303e-14 -8.680425830714065538e-15
2.558441841357932817e-15 -8.856203801994172453e-15 6.480337371318062312e-15
-8.975404207562428377e-15 -2.808312325633215145e-16 -5.990227167377779049e-15
-4.489612374835509449e-16 -1.630941611147421200e-14 -1.614681966691927650e-16
-5.894213441707662343e-15 -2.701442178678140071e-15 1.899888802054175430e-14
1.093639644177222398e-14 -7.813180983272383084e-15 1.871953824860318055e-14
2.023590086594256529e-15 -3.508223908520679245e-15 -8.676089869057070775e-15
1.485656656561879646e-14 2.927831639106112313e-15 -1.518901683302074229e-14
1.312782165994194703e-15 -1.134099930496189606e-15 -1.622186996241955972e-15
-5.251764362203693165e-15 5.610555660199353228e-15 1.373286555273692949e-14
-3.022576763531126254e-14 -2.520251666865078177e-14 -5.354784320897023817e-15
-1.337093176250695598e-14 5.518694090036677102e-15 -2.977343255971967931e-15
-6.382440267889725669e-15 -1.683323483858342740e-14 -1.076837559822307194e-14
1.357299994240394186e-14 -6.120493211368965153e-15 1.540507291500868570e-14
2.602454350923624066e-14 -5.208533494641728184e-15 -2.299435259713565605e-14
-1.327154769273971441e-14 -2.102619700529093083e-14 -3.516005600207104502e-15
7.957213853755293331e-15 -2.949004709930391245e-15 -1.469190505473845498e-15
-4.376716647251904097e-15 -1.363425736514937286e-14 -1.397356775239113127e-14
6.085957137010565565e-16 8.798734310588862684e-15 -1.696106396878536288e-14
7.257529910972403825e-15 -8.575458966791470877e-15 2.106681731730945806e-14
-1.334657787120750033e-14 1.140030452852214271e-14 -2.746575143426459309e-14
-6.999281423815829212e-15 1.728560125439405903e-14 4.444846895331356490e-15
1.133956972510516761e-14 8.677703466821590217e-15 1.051450457733790755e-14
5.099894742892786131e-15 -6.812012180056796831e-15 3.442838597761746500e-14
-8.361545031127133598e-15 -8.241106263389991887e-15 -2.379815086517972876e-15
-3.402978582516674733e-15 3.910884948678770845e-15 -7.555549136101409602e-15
-2.442589248810404789e-14 4.120717456086763278e-15 1.431633911625537076e-16
8.198755463060224125e-15 6.781768021642134783e-15 -7.862324987839130336e-15
-2.103394989785714944e-15 1.706418006571820689e-14 -3.062444656182607486e-15
2.019444114427330905e-14 2.069285184758021083e-15 -1.825778035498986686e-15
1.468263343209780941e-14 -1.029820857326765437e-15 -1.807683082405029881e-15
-1.670355578842468852e-14 -1.998961756619890492e-15 -2.174764037745583606e-14
-5.393722001965830376e-15 -1.482437761955723854e-14 9.775125282514892516e-15
-9.440157633193706904e-15 4.945423038367913887e-15 1.754976711372015219e-14
-5.573745725894049471e-16 2.029265207340860341e-15 5.746530706255033316e-15
-2.355912367317872236e-14 6.111653999047892902e-15 2.942330894987327250e-14
-1.503607995219629484e-14 3.447547762135301508e-15 3.194118045415656609e-15
8.186098249729403115e-15 1.532596681399871208e-14 7.581279455940153483e-15
-1.039216760876596896e-14 1.155960262678046996e-15 1.575444690069677245e-14
1.424648261502941410e-14 -1.383855239466469031e-14 5.562804601314365674e-15
-2.241909864133737051e-14 3.693361805626182992e-15 -5.903987778402503342e-15
2.573167678552538279e-14 -2.155876727681117766e-16 1.220376525393673459e-14
2.188028404292996498e-14 -3.217931317936527195e-15 1.022365887423919845e-14
-2.676912104525655534e-14 -1.131247652925429156e-14 1.005351536612422714e-14
1.369907910253684996e-14 -1.580523160808235128e-14 6.695006860371350427e-15
-1.146225651828432224e-14 6.159687966937263393e-15 -7.700823756884994653e-15
4.086595157323097416e-15 1.961076259878163225e-14 -2.355117172786989899e-14
2.469136616630070169e-15 1.786706396169571859e-14 -9.538161886289871216e-15
-2.253261460879660283e-14 -1.288589274482188421e-14 -1.523296767858787343e-14
4.428505088679979274e-15 -1.199409834146993037e-14 1.766286295283754637e-14
2.131554854227068335e-14 -5.470888397526591646e-15 -1.850392177671486213e-15
-2.003952220635228654e-14 -1.169220245829957847e-15 -7.984013976206419394e-15
3.640674662241071002e-14 7.728853771175533960e-15 1.159500013364622717e-15
-1.000573593163550656e-14 -2.345016982517340171e-14 1.593426310155291424e-15
6.881025459983761833e-15 8.903882439562169765e-15 -1.387255568529926694e-14
-7.299803631303971446e-15 -2.657211176963704576e-15 1.193611724216447900e-14
2.697914709969299538e-15 1.129857036584274409e-15 9.897190353510762484e-15
1.457625541128508909e-15 -2.191819384951727845e-14 -1.126779723535252173e-14
5.300829592706345766e-15 2.506889891528731040e-14 -4.988589531425887541e-15
-4.849699844998705406e-16 -1.993553705361555961e-14 1.034233411938015670e-14
-9.079492274802246701e-16 -1.106071800853957940e-14 4.106842632894264211e-15
1.000325412510005146e-14 -1.067683166541561618e-14 -7.911677362510902145e-15
-1.758910395906535234e-15 -1.440456289166782648e-15 4.931008655188013831e-16
3.354978495945194414e-15 4.091110689964910091e-15 -5.317354781990803539e-15
6.031073213676749548e-15 -9.313361036154474415e-15 1.488564266559919483e-15
8.142840277113125996e-15 2.827438329582217247e-17 -1.180360656086306900e-14
1.759777122369813197e-15 1.962987335613758377e-14 -4.232092971288283975e-15
-8.476396769544185944e-15 4.440413101368953855e-15 -3.547035805196818541e-15
8.517324554522566482e-15 6.634927236939076531e-15 -8.335251434378465607e-15
8.443967266125607801e-15 4.073445394333448030e-15 5.507598805460593022e-15
8.297701616793735219e-15 3.924863956923782191e-15 -2.483920052065088924e-14
4.886524602380586113e-16 5.559920030612491154e-15 3.662861165635092342e-14
2.351837461215221248e-14 -3.963807567223219530e-15 -1.656747952193181155e-15
-1.009922804022164722e-14 1.421508649180648620e-14 1.359747750051369664e-14
2.519997387574312436e-14 1.004871099524740075e-14 -3.403985069416249655e-15
8.052536400540450529e-15 -1.975744668238944846e-14 1.135830778796432725e-14
5.638524264601216598e-15 -1.382262690470688858e-15 8.943328763915802532e-15
-2.082918222395726410e-14 -2.353854924288991540e-14 4.647429224227325739e-15
-2.304900104531013537e-15 -1.197492066851114575e-14 1.684146122256716116e-14
-2.100901748305471911e-15 2.217317617762924048e-14 -2.313950863330662550e-15
5.594400624312845585e-15 -3.130509682725121298e-15 1.513416806155423733e-14
2.052502624512540091e-14 1.575760125139234746e-14 -1.814493481410838632e-14
6.725242548456539932e-15 -2.238487851026829678e-15 -1.335134666670054204e-14
-1.199420337355538990e-14 1.119808896489233457e-15 -6.716367337235209373e-15
-1.630779404338022001e-15 -3.218600855129684357e-14 -2.320511133507147106e-15
8.925295432468758478e-15 1.259054675567441300e-14 -5.773712840565371068e-15
5.685205944390295599e-15 9.625088642501843789e-15 -2.717097888642241305e-15
1.863000051333129660e-15 -7.918138529832557948e-15 2.259817495891408567e-14
-4.669231428773177803e-15 -5.492796904707324124e-15 -9.748536071267632774e-16
-4.342111116191829656e-16 6.580232201952498222e-15 -1.062200237570689806e-14
-6.006948021273052565e-15 -1.012556398861767792e-14 -1.053314607844108020e-14
7.407665653840281306e-15 -2.440305139764838843e-14 -1.515798832209692276e-14
-1.652527906995018142e-14 2.306487317219226008e-14 -1.124796332361785185e-15
-2.897723852995958208e-15 5.684916259122334628e-15 3.787911434846970640e-15
-4.765969791129670563e-15 7.431966182064059928e-15 3.157469470886804797e-15
-4.235378612090683406e-16 -1.648867708223342859e-14 -2.593208308677985574e-15
-1.217035742746407773e-14 -7.755670834285605109e-15 -1.432057428099164226e-17
-1.420245130133229380e-15 2.476014354755185637e-14 2.371093823534805786e-15
-4.486656865124302382e-15 4.774264784782131926e-15 -1.548726052188077046e-14
1.470273521800204847e-14 2.527420953730638575e-15 5.074067014265108005e-15
-3.193264236204824275e-15 -2.613030404303041260e-14 7.790873523573493831e-15
-1.786767721354953070e-14 1.099899979987084206e-14 -1.925386696052192731e-14
5.496639893189016884e-15 -6.664017312963104595e-15 -4.882390234565037873e-15
4.859379314003453923e-16 -1.079551432209486291e-15 -1.070449216158291580e-15
4.791240172078055359e-15 1.331527492160877041e-14 8.048294459540600992e-15
-2.343122254517627026e-15 -7.960119176764375581e-17 6.218526263585336111e-15
-2.767098031760425840e-15 9.146207554343310786e-15 -1.339180265432730194e-16
4.024080737683941034e-15 -8.295451050252880543e-15 -5.631792893769386674e-16
8.962074450071487453e-15 -3.116729727222714713e-15 2.625931393716082057e-14
-6.549566221130103533e-15 1.436199419211237754e-14 9.387113888937800854e-15
-6.093790921223246962e-15 -3.661110179126528252e-14 -2.106274139476727036e-14
1.937935489165765190e-14 -2.735425775796693042e-15 1.496364910608539555e-15
-1.107757227012404547e-14 1.412436163985902535e-14 -6.760068308082900490e-15
-1.833280502774349563e-14 -2.228673492025230914e-15 -4.975347018328513810e-15
-1.978915663131933407e-15 1.344024108044898635e-14 7.045807249542613421e-15
1.649536525438494855e-15 -1.978215124532906738e-14 8.080419031098167587e-15
-9.731200694969126264e-15 1.936927181145353671e-14 6.439000045909684319e-15
-6.959142226511342427e-15 2.613509655544597743e-14 1.044948971643845648e-14
2.331388561209197380e-14 -1.026734883365857526e-14 -1.374325187073616172e-14
1.020474293446111541e-14 -4.982003003228038102e-15 -1.223361638906387064e-14
1.270063647486200167e-14 1.733423703919245371e-15 1.805552371026211689e-15
1.685590800475729369e-15 -1.895964667816135707e-14 -3.975982818807052843e-15
-2.223720466866161392e-15 -7.088218612728109866e-15 -1.529799736256390146e-15
-1.317890346413377531e-14 2.866385116255206790e-15 6.079141062884010210e-15
1.395265450892342260e-14 -1.015722777425193818e-14 -2.049256455445482711e-14
1.465238249741956933e-15 -2.911918007609572145e-14 8.212828068445907070e-15
1.912711864436068832e-14 -2.544360342126303701e-15 5.563721090963294827e-15
-1.412590832202071170e-14 -1.709907274094740054e-14 -9.163580200091496486e-15
9.183756524895093920e-15 -1.453222579165386330e-14 8.825797013253637580e-15
-1.136498516044576971e-16 -9.344160001149588030e-15 -1.343755852710503199e-14
1.013417534907593877e-15 -7.542887687605852320e-15 2.940932951811178753e-14
1.638826471446822031e-14 -2.571648355555048240e-15 1.280107679471446935e-14
1.770155287676928105e-15 -4.520868949380377200e-15 7.396991344638982613e-15
-2.070720100922317231e-14 -2.046749237921609982e-16 -2.012662514541728800e-15
-1.044571194949370230e-15 -3.341434015602124524e-15 3.185945024507599865e-16
9.442899478843969074e-15 9.897164095489397601e-15 1.626927860823561972e-14
-1.281000028681379341e-14 -8.513994020973962573e-16 1.847750366612294776e-14
-9.337718739102192703e-16 1.142652443340439958e-14 6.590591414897418315e-15
-4.295534892004683816e-15 -1.402207457642330648e-15 -1.107431204031006367e-14
7.259607682792018624e-15 1.658682787202946790e-14 -4.436076716195485464e-15
6.115261935886722594e-15 -8.866884040426101926e-15 -8.369490729567970969e-16
1.725348854129775400e-14 1.186114381490415912e-14 9.488205577126707091e-15
5.826842982181897057e-15 -1.005027377103508493e-14 6.922102322760859128e-15
-5.766243704036482648e-15 8.939941479159732585e-15 -2.667059925502961865e-14
6.518685093939106251e-15 -5.613211108488995460e-15 -1.475819385319057653e-16
-4.447570106256779066e-15 -2.036291938561397841e-14 8.636632533275123702e-15
-1.141972868806857833e-14 8.116117234660200075e-15 -2.574475666829688369e-14
-1.889346968805827309e-14 -8.320601152522755228e-15 5.312720241219901635e-15
6.716622929427043358e-16 -6.688837495900023730e-15 7.928859425845955627e-16
-9.424751797949045690e-15 2.589680839969145040e-15 -2.048427549003299653e-14
-1.695545322254275039e-14 -7.707155328165720548e-15 -1.698280391640959175e-14
4.638742054320285635e-15 2.721062341648570332e-14 1.264493135308582261e-17
-3.254223291594584948e-16 -8.812380434885603089e-16 1.380910952941813083e-14
1.211527826303591959e-14 -1.722975637218158301e-14 1.403005807370941507e-14
-1.024308557488447582e-14 8.491214763923452674e-15 -6.253533076504172276e-16
2.180098143027622837e-14 2.223749308338015401e-14 -1.968675670074339357e-14
1.897195745501675107e-14 1.000950692231668271e-14 1.511525381584204880e-14
2.833735850138463519e-14 8.222077668229924030e-15 2.871957851894311239e-16
-1.615723478403871538e-14 8.568830404583613943e-16 1.024915371891860563e-15
-1.655714275535999369e-14 4.259666011303779587e-15 -3.516738495464716285e-15
-1.191534037100127827e-14 3.305358882378563873e-15 7.636383184323781992e-17
-4.277853079230750297e-15 2.277070032367673608e-14 -9.314269055473931025e-15
6.052607332294795625e-16 -2.788780381144241420e-15 -6.875233448690436927e-15
1.099456304129312403e-14 2.408262560996566465e-14 1.133150681848025393e-14
1.279696953195323325e-14 7.908572139726267880e-15 1.376641144557998880e-14
1.865041697197544063e-14 5.107122051515233449e-15 -7.519952576493047630e-15
-2.517772189670228027e-15 -6.919534542381257716e-15 3.556311874760437197e-15
1.809216000281323351e-15 5.157759798684463659e-15 4.751258522901757875e-15
-1.012211148232466940e-14 -1.332725535561473523e-14 -7.274354526403715993e-15
-1.893892486413972787e-14 8.818966539566978902e-15 -5.024794684206851728e-15
-8.873481580052265671e-15 1.934654083528102031e-14 1.335130431505317933e-14
1.243770262495768990e-15 -2.644453378470397117e-15 -5.999732994628340435e-15
4.525846114978443469e-15 -1.147633759399947773e-14 6.866454375708619731e-15
1.250260610102457703e-14 1.886670598802387896e-16 -1.813121965662644469e-14
7.094936431032783722e-15 -3.057479984320513218e-15 -7.252658624492744344e-15
2.169123137130048867e-14 7.598291265652808851e-15 -5.945224730406631700e-15
5.498703688965001987e-15 2.029023210027829788e-14 1.337617489645046009e-16
1.653347496074781403e-14 -1.804862716800557237e-14 3.651183376501181480e-15
-7.579420218620930294e-15 -4.605475258833346616e-15 -7.147710395294989277e-15
1.401978864625690394e-14 -4.359711613802826763e-15 6.467040224595590678e-15
5.215937833150151651e-15 -9.181664353515375798e-15 3.266103479251242225e-14
-2.178442871242098483e-14 1.705086131965558027e-14 1.012093495356093317e-14
-8.085409749223389925e-15 -4.770392150147285265e-15 -1.552803329982980346e-14
-1.410120206501519827e-14 8.692129284946278206e-15 -6.878348835870438244e-15
-2.475601172083514989e-14 -1.646036754707029537e-14 1.886966298004274373e-14
-3.468477099229008015e-15 -4.234166931459636130e-15 1.741717427022285852e-14
7.738359174909621718e-15 -2.387284773618277012e-14 -1.119914267387871892e-14
2.056549409121342237e-15 1.986536545613322435e-14 1.044829794108166968e-14
8.307616137441346804e-15 -2.785069529802320330e-15 7.824758229595454861e-15
-1.487234001316256604e-14 6.093847672430713000e-15 -1.840094798131715684e-15
-1.668380467416061275e-14 -6.110541421271674378e-15 8.134408064123209436e-15
-1.769527636263012668e-15 1.074247756586077171e-14 -1.805414812875577590e-14
-1.906766709585880348e-14 1.174311231480311413e-14 -7.715343595666827869e-15
3.809680605107879786e-15 -2.081784553499121254e-14 5.354988032320838476e-15
-1.036181757123290012e-14 -1.652955658633381564e-14 2.814934005698375638e-15
4.201652301229858930e-15 -1.418340576551328086e-15 1.641182239479725691e-14
-6.826598087408515883e-15 6.973664606392017407e-16 1.150306910678187619e-14
-1.744190424415089508e-14 7.762103202487054265e-15 -7.374722001422719803e-15
7.207841264220572058e-15 -1.177637529864179050e-15 8.621111501549635903e-15
7.979839797842350202e-15 -3.563388411518273249e-15 -1.117624906738032969e-14
3.234451425023301442e-15 4.755148945228496876e-15 5.522527761155950066e-15
4.653105192006876806e-15 4.553568656309129464e-15 -2.065189653403104453e-14
-8.785111479698171771e-15 5.856830913130014679e-15 1.902952350817804783e-14
-1.585828954014012384e-15 -1.033406623078200748e-14 5.042862320488259581e-15
-1.895533358639393817e-14 9.006962961111229099e-15 -7.382061541910678315e-15
5.202141784021747234e-15 -9.520247139455442764e-15 1.332726509649362866e-15
6.317699422148711358e-15 9.155309770394505497e-15 2.351574796298277689e-15
4.483603311349450629e-15 1.087614529416813108e-14 -1.181762156800833866e-14
